-2748.000000 415.766292 -2310.600387
-2748.000000 413.785322 -2310.325141
-2748.000000 411.804353 -2310.049895
-2748.000000 409.823384 -2309.774649
-2748.000000 407.842414 -2309.499402
-2748.000000 405.861445 -2309.224156
-2748.000000 403.880476 -2308.948910
-2748.000000 401.899506 -2308.673664
-2748.000000 399.918537 -2308.398417
-2748.000000 397.937568 -2308.123171
-2748.000000 395.956598 -2307.847925
-2748.000000 393.975629 -2307.572679
-2748.000000 391.994660 -2307.297432
-2748.000000 390.013690 -2307.022186
-2748.000000 388.032721 -2306.746940
-2748.000000 386.051752 -2306.471694
-2748.000000 384.070782 -2306.196447
-2748.000000 382.089813 -2305.921201
-2748.000000 380.108844 -2305.645955
-2748.000000 378.127874 -2305.370709
-2748.000000 376.146905 -2305.095462
-2748.000000 374.165936 -2304.820216
-2748.000000 372.184966 -2304.544970
-2748.000000 370.203997 -2304.269724
-2748.000000 368.223028 -2303.994477
-2748.000000 366.242058 -2303.719231
-2748.000000 364.261089 -2303.443985
-2748.000000 362.280120 -2303.168739
-2748.000000 360.299150 -2302.893492
-2748.000000 358.318181 -2302.618246
-2748.000000 356.337212 -2302.343000
-2748.000000 354.356242 -2302.067754
-2748.000000 352.375273 -2301.792508
-2748.000000 350.394304 -2301.517261
-2748.000000 348.413334 -2301.242015
-2748.000000 346.432365 -2300.966769
-2748.000000 344.451396 -2300.691523
-2748.000000 342.470426 -2300.416276
-2748.000000 340.489457 -2300.141030
-2748.000000 338.508488 -2299.865784
-2748.000000 336.527518 -2299.590538
-2748.000000 334.546549 -2299.315291
-2748.000000 332.565580 -2299.040045
-2748.000000 330.584610 -2298.764799
-2748.000000 328.603641 -2298.489553
-2748.000000 326.622672 -2298.214306
-2748.000000 324.641702 -2297.939060
-2748.000000 322.660733 -2297.663814
-2748.000000 320.679764 -2297.388568
-2748.000000 318.698794 -2297.113321
-2748.000000 316.717825 -2296.838075
-2748.000000 314.736856 -2296.562829
-2748.000000 312.755886 -2296.287583
-2748.000000 310.774917 -2296.012336
-2748.000000 308.793948 -2295.737090
-2748.000000 306.812978 -2295.461844
-2748.000000 304.832009 -2295.186598
-2748.000000 302.851040 -2294.911351
-2748.000000 300.870070 -2294.636105
-2748.000000 298.889101 -2294.360859
-2748.000000 296.908132 -2294.085613
-2748.000000 294.927162 -2293.810366
-2748.000000 292.946193 -2293.535120
-2748.000000 290.965224 -2293.259874
-2748.000000 288.984254 -2292.984628
-2748.000000 287.003285 -2292.709381
-2748.000000 285.022316 -2292.434135
-2748.000000 283.041346 -2292.158889
-2748.000000 281.060377 -2291.883643
-2748.000000 279.079408 -2291.608396
-2748.000000 277.098438 -2291.333150
-2748.000000 275.117469 -2291.057904
-2748.000000 273.136500 -2290.782658
-2748.000000 271.155530 -2290.507411
-2748.000000 269.174561 -2290.232165
-2748.000000 267.193592 -2289.956919
-2748.000000 265.212622 -2289.681673
-2748.000000 263.231653 -2289.406426
-2748.000000 261.250684 -2289.131180
-2748.000000 259.269714 -2288.855934
-2748.000000 257.288745 -2288.580688
-2748.000000 255.307776 -2288.305441
-2748.000000 253.326806 -2288.030195
-2748.000000 251.345837 -2287.754949
-2748.000000 249.364868 -2287.479703
-2748.000000 247.383898 -2287.204456
-2748.000000 245.402929 -2286.929210
-2748.000000 243.421960 -2286.653964
-2748.000000 241.440990 -2286.378718
-2748.000000 239.460021 -2286.103471
-2748.000000 237.479052 -2285.828225
-2748.000000 235.498082 -2285.552979
-2748.000000 233.517113 -2285.277733
-2748.000000 231.536144 -2285.002486
-2748.000000 229.555174 -2284.727240
-2748.000000 227.574205 -2284.451994
-2748.000000 225.593236 -2284.176748
-2748.000000 223.612266 -2283.901501
-2748.000000 221.631297 -2283.626255
-2748.000000 219.650328 -2283.351009
-2748.000000 217.669358 -2283.075763
-2748.000000 215.688389 -2282.800517
-2748.000000 213.707420 -2282.525270
-2748.000000 211.726450 -2282.250024
-2748.000000 209.745481 -2281.974778
-2748.000000 207.764512 -2281.699532
-2748.000000 205.783542 -2281.424285
-2748.000000 203.802573 -2281.149039
-2748.000000 201.821604 -2280.873793
-2748.000000 199.840634 -2280.598547
-2748.000000 197.859665 -2280.323300
-2748.000000 195.878696 -2280.048054
-2748.000000 193.897726 -2279.772808
-2748.000000 191.916757 -2279.497562
-2748.000000 189.935788 -2279.222315
-2748.000000 187.954818 -2278.947069
-2748.000000 185.973849 -2278.671823
-2748.000000 183.992880 -2278.396577
-2748.000000 182.011910 -2278.121330
-2748.000000 180.030941 -2277.846084
-2748.000000 178.049972 -2277.570838
-2748.000000 176.069002 -2277.295592
-2748.000000 174.088033 -2277.020345
-2748.000000 172.107064 -2276.745099
-2748.000000 170.126094 -2276.469853
-2748.000000 168.145125 -2276.194607
-2748.000000 166.164156 -2275.919360
-2748.000000 164.183186 -2275.644114
-2748.000000 162.202217 -2275.368868
-2748.000000 160.221248 -2275.093622
-2748.000000 158.240278 -2274.818375
-2748.000000 156.259309 -2274.543129
-2748.000000 154.278340 -2274.267883
-2748.000000 152.297370 -2273.992637
-2748.000000 150.316401 -2273.717390
-2748.000000 148.335432 -2273.442144
-2748.000000 146.354462 -2273.166898
-2748.000000 144.373493 -2272.891652
-2748.000000 142.392524 -2272.616405
-2748.000000 140.411554 -2272.341159
-2748.000000 138.430585 -2272.065913
-2748.000000 136.449616 -2271.790667
-2748.000000 134.468646 -2271.515420
-2748.000000 132.487677 -2271.240174
-2748.000000 130.506708 -2270.964928
-2748.000000 128.525738 -2270.689682
-2748.000000 126.544769 -2270.414435
-2748.000000 124.563800 -2270.139189
-2748.000000 122.582830 -2269.863943
-2748.000000 120.601861 -2269.588697
-2748.000000 118.620892 -2269.313450
-2748.000000 116.639922 -2269.038204
-2748.000000 114.658953 -2268.762958
-2748.000000 112.677984 -2268.487712
-2748.000000 110.697014 -2268.212465
-2748.000000 108.716045 -2267.937219
-2748.000000 106.735076 -2267.661973
-2748.000000 104.754106 -2267.386727
-2748.000000 102.773137 -2267.111480
-2748.000000 100.792167 -2266.836234
-2748.000000 98.811198 -2266.560988
-2748.000000 96.830229 -2266.285742
-2748.000000 94.849259 -2266.010495
-2748.000000 92.868290 -2265.735249
-2748.000000 90.887321 -2265.460003
-2748.000000 88.906351 -2265.184757
-2748.000000 86.925382 -2264.909511
-2748.000000 84.944413 -2264.634264
-2748.000000 82.963443 -2264.359018
-2748.000000 80.982474 -2264.083772
-2748.000000 79.001505 -2263.808526
-2748.000000 77.020535 -2263.533279
-2748.000000 75.039566 -2263.258033
-2748.000000 73.058597 -2262.982787
-2748.000000 71.077627 -2262.707541
-2748.000000 69.096658 -2262.432294
-2748.000000 67.115689 -2262.157048
-2748.000000 65.134719 -2261.881802
-2748.000000 63.153750 -2261.606556
-2748.000000 61.172781 -2261.331309
-2748.000000 59.191811 -2261.056063
-2748.000000 57.210842 -2260.780817
-2748.000000 55.229873 -2260.505571
-2748.000000 53.248903 -2260.230324
-2748.000000 51.267934 -2259.955078
-2748.000000 49.286965 -2259.679832
-2748.000000 47.305995 -2259.404586
-2748.000000 45.325026 -2259.129339
-2748.000000 43.344057 -2258.854093
-2748.000000 41.363087 -2258.578847
-2748.000000 39.382118 -2258.303601
-2748.000000 37.401149 -2258.028354
-2748.000000 35.420179 -2257.753108
-2748.000000 33.439210 -2257.477862
-2748.000000 31.458241 -2257.202616
-2748.000000 29.477271 -2256.927369
-2748.000000 27.496302 -2256.652123
-2748.000000 25.515333 -2256.376877
-2748.000000 23.534363 -2256.101631
-2748.000000 21.553394 -2255.826384
-2748.000000 19.572425 -2255.551138
-2748.000000 17.591455 -2255.275892
-2748.000000 15.610486 -2255.000646
-2748.000000 13.629517 -2254.725399
-2748.000000 11.648547 -2254.450153
-2748.000000 9.667578 -2254.174907
-2748.000000 7.686609 -2253.899661
-2748.000000 5.705639 -2253.624414
-2748.000000 3.724670 -2253.349168
-2748.000000 1.743701 -2253.073922
-2748.000000 -0.237269 -2252.798676
-2748.000000 -2.218238 -2252.523429
-2748.000000 -4.199207 -2252.248183
-2748.000000 -6.180177 -2251.972937
-2748.000000 -8.161146 -2251.697691
-2748.000000 -10.142115 -2251.422444
-2748.000000 -12.123085 -2251.147198
-2748.000000 -14.104054 -2250.871952
-2748.000000 -16.085023 -2250.596706
-2748.000000 -18.065993 -2250.321459
-2748.000000 -20.046962 -2250.046213
-2748.000000 -22.027931 -2249.770967
-2748.000000 -24.008901 -2249.495721
-2748.000000 -25.989870 -2249.220474
-2748.000000 -27.970839 -2248.945228
-2748.000000 -29.951809 -2248.669982
-2748.000000 -31.932778 -2248.394736
-2748.000000 -33.913747 -2248.119489
-2748.000000 -35.894717 -2247.844243
-2748.000000 -37.875686 -2247.568997
-2748.000000 -39.856655 -2247.293751
-2748.000000 -41.837625 -2247.018504
-2748.000000 -43.818594 -2246.743258
-2748.000000 -45.799563 -2246.468012
-2748.000000 -47.780533 -2246.192766
-2748.000000 -49.761502 -2245.917520
-2748.000000 -51.742471 -2245.642273
-2748.000000 -53.723441 -2245.367027
-2748.000000 -55.704410 -2245.091781
-2748.000000 -57.685379 -2244.816535
-2748.000000 -59.666349 -2244.541288
-2748.000000 -61.647318 -2244.266042
-2748.000000 -63.628287 -2243.990796
-2748.000000 -65.609257 -2243.715550
-2748.000000 -67.590226 -2243.440303
-2748.000000 -69.571195 -2243.165057
-2748.000000 -71.552165 -2242.889811
-2748.000000 -73.533134 -2242.614565
-2748.000000 -75.514103 -2242.339318
-2748.000000 -77.495073 -2242.064072
-2748.000000 -79.476042 -2241.788826
-2748.000000 -81.457011 -2241.513580
-2748.000000 -83.437981 -2241.238333
-2748.000000 -85.418950 -2240.963087
-2748.000000 -87.399919 -2240.687841
-2748.000000 -89.380889 -2240.412595
-2748.000000 -91.361858 -2240.137348
-2748.000000 -93.342827 -2239.862102
-2748.000000 -95.323797 -2239.586856
-2748.000000 -97.304766 -2239.311610
-2748.000000 -99.285735 -2239.036363
-2748.000000 -101.266705 -2238.761117
-2748.000000 -103.247674 -2238.485871
-2748.000000 -105.228643 -2238.210625
-2748.000000 -107.209613 -2237.935378
-2748.000000 -109.190582 -2237.660132
-2748.000000 -111.171551 -2237.384886
-2748.000000 -113.152521 -2237.109640
-2748.000000 -115.133490 -2236.834393
-2748.000000 -117.114459 -2236.559147
-2748.000000 -119.095429 -2236.283901
-2748.000000 -121.076398 -2236.008655
-2748.000000 -123.057367 -2235.733408
-2748.000000 -125.038337 -2235.458162
-2748.000000 -127.019306 -2235.182916
-2748.000000 -129.000275 -2234.907670
-2748.000000 -130.981245 -2234.632423
-2748.000000 -132.962214 -2234.357177
-2748.000000 -134.943183 -2234.081931
-2748.000000 -136.924153 -2233.806685
-2748.000000 -138.905122 -2233.531438
-2748.000000 -140.886091 -2233.256192
-2748.000000 -142.867061 -2232.980946
-2748.000000 -144.848030 -2232.705700
-2748.000000 -146.828999 -2232.430453
-2748.000000 -148.809969 -2232.155207
-2748.000000 -150.790938 -2231.879961
-2748.000000 -152.771907 -2231.604715
-2748.000000 -154.752877 -2231.329468
-2748.000000 -156.733846 -2231.054222
-2748.000000 -158.714815 -2230.778976
-2748.000000 -160.695785 -2230.503730
-2748.000000 -162.676754 -2230.228483
-2748.000000 -164.657723 -2229.953237
-2748.000000 -166.638693 -2229.677991
-2748.000000 -168.619662 -2229.402745
-2748.000000 -170.600631 -2229.127498
-2748.000000 -172.581601 -2228.852252
-2748.000000 -174.562570 -2228.577006
-2748.000000 -176.543539 -2228.301760
-2748.000000 -178.524509 -2228.026514
-2748.000000 -180.505478 -2227.751267
-2748.000000 -182.486447 -2227.476021
-2748.000000 -184.467417 -2227.200775
-2748.000000 -186.448386 -2226.925529
-2748.000000 -188.429355 -2226.650282
-2748.000000 -190.410325 -2226.375036
-2748.000000 -192.391294 -2226.099790
-2748.000000 -194.372263 -2225.824544
-2748.000000 -196.353233 -2225.549297
-2748.000000 -198.334202 -2225.274051
-2748.000000 -200.315171 -2224.998805
-2748.000000 -202.296141 -2224.723559
-2748.000000 -204.277110 -2224.448312
-2748.000000 -206.258079 -2224.173066
-2748.000000 -208.239049 -2223.897820
-2748.000000 -210.220018 -2223.622574
-2748.000000 -212.200987 -2223.347327
-2748.000000 -214.181957 -2223.072081
-2748.000000 -216.162926 -2222.796835
-2748.000000 -218.143895 -2222.521589
-2748.000000 -220.124865 -2222.246342
-2748.000000 -222.105834 -2221.971096
-2748.000000 -224.086803 -2221.695850
-2748.000000 -226.067773 -2221.420604
-2748.000000 -228.048742 -2221.145357
-2748.000000 -230.029711 -2220.870111
-2748.000000 -232.010681 -2220.594865
-2748.000000 -233.991650 -2220.319619
-2748.000000 -235.972619 -2220.044372
-2748.000000 -237.953589 -2219.769126
-2748.000000 -239.934558 -2219.493880
-2748.000000 -241.915527 -2219.218634
-2748.000000 -243.896497 -2218.943387
-2748.000000 -245.877466 -2218.668141
-2748.000000 -247.858435 -2218.392895
-2748.000000 -249.839405 -2218.117649
-2748.000000 -251.820374 -2217.842402
-2748.000000 -253.801343 -2217.567156
-2748.000000 -255.782313 -2217.291910
-2748.000000 -257.763282 -2217.016664
-2748.000000 -259.744251 -2216.741417
-2748.000000 -261.725221 -2216.466171
-2748.000000 -263.706190 -2216.190925
-2748.000000 -265.687159 -2215.915679
-2748.000000 -267.668129 -2215.640432
-2748.000000 -269.649098 -2215.365186
-2748.000000 -271.630067 -2215.089940
-2748.000000 -273.611037 -2214.814694
-2748.000000 -275.592006 -2214.539447
-2748.000000 -277.572975 -2214.264201
-2748.000000 -279.553945 -2213.988955
-2748.000000 -281.534914 -2213.713709
-2748.000000 -283.515883 -2213.438462
-2748.000000 -285.496853 -2213.163216
-2748.000000 -287.477822 -2212.887970
-2748.000000 -289.458791 -2212.612724
-2748.000000 -291.439761 -2212.337477
-2748.000000 -293.420730 -2212.062231
-2748.000000 -295.401699 -2211.786985
-2748.000000 -297.382669 -2211.511739
-2748.000000 -299.363638 -2211.236492
-2748.000000 -301.344607 -2210.961246
-2748.000000 -303.325577 -2210.686000
-2748.000000 -305.306546 -2210.410754
-2748.000000 -307.287515 -2210.135507
-2748.000000 -309.268485 -2209.860261
-2748.000000 -311.249454 -2209.585015
-2748.000000 -313.230423 -2209.309769
-2748.000000 -315.211393 -2209.034523
-2748.000000 -317.192362 -2208.759276
-2748.000000 -319.173331 -2208.484030
-2748.000000 -321.154301 -2208.208784
-2748.000000 -323.135270 -2207.933538
-2748.000000 -325.116239 -2207.658291
-2748.000000 -327.097209 -2207.383045
-2748.000000 -329.078178 -2207.107799
-2748.000000 -331.059147 -2206.832553
-2748.000000 -333.040117 -2206.557306
-2748.000000 -335.021086 -2206.282060
-2748.000000 -337.002055 -2206.006814
-2748.000000 -338.983025 -2205.731568
-2748.000000 -340.963994 -2205.456321
-2748.000000 -342.944963 -2205.181075
-2748.000000 -344.925933 -2204.905829
-2748.000000 -346.906902 -2204.630583
-2748.000000 -348.887871 -2204.355336
-2748.000000 -350.868841 -2204.080090
-2748.000000 -352.849810 -2203.804844
-2748.000000 -354.830779 -2203.529598
-2748.000000 -356.811749 -2203.254351
-2748.000000 -358.792718 -2202.979105
-2748.000000 -360.773687 -2202.703859
-2748.000000 -362.754657 -2202.428613
-2748.000000 -364.735626 -2202.153366
-2748.000000 -366.716595 -2201.878120
-2748.000000 -368.697565 -2201.602874
-2748.000000 -370.678534 -2201.327628
-2748.000000 -372.659503 -2201.052381
-2748.000000 -374.640473 -2200.777135
-2748.000000 -376.621442 -2200.501889
-2748.000000 -378.602411 -2200.226643
-2748.000000 -380.583381 -2199.951396
-2748.000000 -382.564350 -2199.676150
-2748.000000 -384.545319 -2199.400904
-2748.000000 -386.526289 -2199.125658
-2748.000000 -388.507258 -2198.850411
-2748.000000 -390.488227 -2198.575165
-2748.000000 -392.469197 -2198.299919
-2748.000000 -394.450166 -2198.024673
-2748.000000 -396.431135 -2197.749426
-2748.000000 -398.412105 -2197.474180
-2748.000000 -400.393074 -2197.198934
-2748.000000 -402.374043 -2196.923688
-2748.000000 -404.355013 -2196.648441
-2748.000000 -406.335982 -2196.373195
-2748.000000 -408.316951 -2196.097949
-2748.000000 -410.297921 -2195.822703
-2748.000000 -412.278890 -2195.547456
-2748.000000 -414.259859 -2195.272210
-2748.000000 -416.240829 -2194.996964
-2748.000000 -418.221798 -2194.721718
-2748.000000 -420.202767 -2194.446471
-2748.000000 -422.183737 -2194.171225
-2748.000000 -424.164706 -2193.895979
-2748.000000 -426.145675 -2193.620733
-2748.000000 -428.126645 -2193.345486
-2748.000000 -430.107614 -2193.070240
-2748.000000 -432.088583 -2192.794994
-2748.000000 -434.069553 -2192.519748
-2748.000000 -436.050522 -2192.244501
-2748.000000 -438.031491 -2191.969255
-2748.000000 -440.012461 -2191.694009
-2748.000000 -441.993430 -2191.418763
-2748.000000 -443.974399 -2191.143517
-2748.000000 -445.955369 -2190.868270
-2748.000000 -447.936338 -2190.593024
-2748.000000 -449.917307 -2190.317778
-2748.000000 -451.898277 -2190.042532
-2748.000000 -453.879246 -2189.767285
-2748.000000 -455.860215 -2189.492039
-2748.000000 -457.841185 -2189.216793
-2748.000000 -459.822154 -2188.941547
-2748.000000 -461.803123 -2188.666300
-2748.000000 -463.784093 -2188.391054
-2748.000000 -465.765062 -2188.115808
-2748.000000 -467.746031 -2187.840562
-2748.000000 -469.727001 -2187.565315
-2748.000000 -471.707970 -2187.290069
-2748.000000 -473.688939 -2187.014823
-2748.000000 -475.669909 -2186.739577
-2748.000000 -477.650878 -2186.464330
-2748.000000 -479.631847 -2186.189084
-2748.000000 -481.612817 -2185.913838
-2748.000000 -483.593786 -2185.638592
-2748.000000 -485.574755 -2185.363345
-2748.000000 -487.555725 -2185.088099
-2748.000000 -489.536694 -2184.812853
-2748.000000 -491.517663 -2184.537607
-2748.000000 -493.498633 -2184.262360
-2748.000000 -495.479602 -2183.987114
-2748.000000 -497.460571 -2183.711868
-2748.000000 -499.441541 -2183.436622
-2748.000000 -501.422510 -2183.161375
-2748.000000 -503.403480 -2182.886129
-2748.000000 -505.384449 -2182.610883
-2748.000000 -507.365418 -2182.335637
-2748.000000 -509.346388 -2182.060390
-2748.000000 -511.327357 -2181.785144
-2748.000000 -513.308326 -2181.509898
-2748.000000 -515.289296 -2181.234652
-2748.000000 -517.270265 -2180.959405
-2748.000000 -519.251234 -2180.684159
-2748.000000 -521.232204 -2180.408913
-2748.000000 -523.213173 -2180.133667
-2748.000000 -525.194142 -2179.858420
-2748.000000 -527.175112 -2179.583174
-2748.000000 -529.156081 -2179.307928
-2748.000000 -531.137050 -2179.032682
-2748.000000 -533.118020 -2178.757435
-2748.000000 -535.098989 -2178.482189
-2748.000000 -537.079958 -2178.206943
-2748.000000 -539.060928 -2177.931697
-2748.000000 -541.041897 -2177.656450
-2748.000000 -543.022866 -2177.381204
-2748.000000 -545.003836 -2177.105958
-2748.000000 -546.984805 -2176.830712
-2748.000000 -548.965774 -2176.555465
-2748.000000 -550.946744 -2176.280219
-2748.000000 -552.927713 -2176.004973
-2748.000000 -554.908682 -2175.729727
-2748.000000 -556.889652 -2175.454480
-2748.000000 -558.870621 -2175.179234
-2748.000000 -560.851590 -2174.903988
-2748.000000 -562.832560 -2174.628742
-2748.000000 -564.813529 -2174.353495
-2748.000000 -566.794498 -2174.078249
-2748.000000 -568.775468 -2173.803003
-2748.000000 -570.756437 -2173.527757
-2748.000000 -572.737406 -2173.252510
-2748.000000 -574.718376 -2172.977264
-2748.000000 -576.699345 -2172.702018
-2748.000000 -578.680314 -2172.426772
-2748.000000 -580.661284 -2172.151526
-2748.000000 -582.642253 -2171.876279
-2748.000000 -584.623222 -2171.601033
-2748.000000 -586.604192 -2171.325787
-2748.000000 -588.585161 -2171.050541
-2748.000000 -590.566130 -2170.775294
-2748.000000 -592.547100 -2170.500048
-2748.000000 -594.528069 -2170.224802
-2748.000000 -596.509038 -2169.949556
-2748.000000 -598.490008 -2169.674309
-2748.000000 -600.470977 -2169.399063
-2748.000000 -602.451946 -2169.123817
-2748.000000 -604.432916 -2168.848571
-2748.000000 -606.413885 -2168.573324
-2748.000000 -608.394854 -2168.298078
-2748.000000 -610.375824 -2168.022832
-2748.000000 -612.356793 -2167.747586
-2748.000000 -614.337762 -2167.472339
-2748.000000 -616.318732 -2167.197093
-2748.000000 -618.299701 -2166.921847
-2748.000000 -620.280670 -2166.646601
-2748.000000 -622.261640 -2166.371354
-2748.000000 -624.242609 -2166.096108
-2748.000000 -626.223578 -2165.820862
-2748.000000 -628.204548 -2165.545616
-2748.000000 -630.185517 -2165.270369
-2748.000000 -632.166486 -2164.995123
-2748.000000 -634.147456 -2164.719877
-2748.000000 -636.128425 -2164.444631
-2748.000000 -638.109394 -2164.169384
-2748.000000 -640.090364 -2163.894138
-2748.000000 -642.071333 -2163.618892
-2748.000000 -644.052302 -2163.343646
-2748.000000 -646.033272 -2163.068399
-2748.000000 -648.014241 -2162.793153
-2748.000000 -649.995210 -2162.517907
-2748.000000 -651.976180 -2162.242661
-2748.000000 -653.957149 -2161.967414
-2748.000000 -655.938118 -2161.692168
-2748.000000 -657.919088 -2161.416922
-2748.000000 -659.900057 -2161.141676
-2748.000000 -661.881026 -2160.866429
-2748.000000 -663.861996 -2160.591183
-2748.000000 -665.842965 -2160.315937
-2748.000000 -667.823934 -2160.040691
-2748.000000 -669.804904 -2159.765444
-2748.000000 -671.785873 -2159.490198
-2748.000000 -673.766842 -2159.214952
-2748.000000 -675.747812 -2158.939706
-2748.000000 -677.728781 -2158.664459
-2748.000000 -679.709750 -2158.389213
-2748.000000 -681.690720 -2158.113967
-2748.000000 -683.671689 -2157.838721
-2748.000000 -685.652658 -2157.563474
-2748.000000 -687.633628 -2157.288228
-2748.000000 -689.614597 -2157.012982
-2748.000000 -691.595566 -2156.737736
-2748.000000 -693.576536 -2156.462489
-2748.000000 -695.557505 -2156.187243
-2748.000000 -697.538474 -2155.911997
-2748.000000 -699.519444 -2155.636751
-2748.000000 -701.500413 -2155.361504
-2748.000000 -703.481382 -2155.086258
-2748.000000 -705.462352 -2154.811012
-2748.000000 -707.443321 -2154.535766
-2748.000000 -709.424290 -2154.260520
-2748.000000 -711.405260 -2153.985273
-2748.000000 -713.386229 -2153.710027
-2748.000000 -715.367198 -2153.434781
-2748.000000 -717.348168 -2153.159535
-2748.000000 -719.329137 -2152.884288
-2748.000000 -721.310106 -2152.609042
-2748.000000 -723.291076 -2152.333796
-2748.000000 -725.272045 -2152.058550
-2748.000000 -727.253014 -2151.783303
-2748.000000 -729.233984 -2151.508057
-2748.000000 -731.214953 -2151.232811
-2748.000000 -733.195922 -2150.957565
-2748.000000 -735.176892 -2150.682318
-2748.000000 -737.157861 -2150.407072
-2748.000000 -739.138830 -2150.131826
-2748.000000 -741.119800 -2149.856580
-2748.000000 -743.100769 -2149.581333
-2748.000000 -745.081738 -2149.306087
-2748.000000 -747.062708 -2149.030841
-2748.000000 -749.043677 -2148.755595
-2748.000000 -751.024646 -2148.480348
-2748.000000 -753.005616 -2148.205102
-2748.000000 -754.986585 -2147.929856
-2748.000000 -756.967554 -2147.654610
-2748.000000 -758.948524 -2147.379363
-2748.000000 -760.929493 -2147.104117
-2748.000000 -762.910462 -2146.828871
-2748.000000 -764.891432 -2146.553625
-2748.000000 -766.872401 -2146.278378
-2748.000000 -768.853370 -2146.003132
-2748.000000 -770.834340 -2145.727886
-2748.000000 -772.815309 -2145.452640
-2748.000000 -774.796278 -2145.177393
-2748.000000 -776.777248 -2144.902147
-2748.000000 -778.758217 -2144.626901
-2748.000000 -780.739186 -2144.351655
-2748.000000 -782.720156 -2144.076408
-2748.000000 -784.701125 -2143.801162
-2748.000000 -786.682094 -2143.525916
-2748.000000 -788.663064 -2143.250670
-2748.000000 -790.644033 -2142.975423
-2748.000000 -792.625002 -2142.700177
-2748.000000 -794.605972 -2142.424931
-2748.000000 -796.586941 -2142.149685
-2748.000000 -798.567910 -2141.874438
-2748.000000 -800.548880 -2141.599192
-2748.000000 -802.529849 -2141.323946
-2748.000000 -804.510818 -2141.048700
-2748.000000 -806.491788 -2140.773453
-2748.000000 -808.472757 -2140.498207
-2748.000000 -810.453726 -2140.222961
-2748.000000 -812.434696 -2139.947715
-2748.000000 -814.415665 -2139.672468
-2748.000000 -816.396634 -2139.397222
-2748.000000 -818.377604 -2139.121976
-2748.000000 -820.358573 -2138.846730
-2748.000000 -822.339542 -2138.571483
-2748.000000 -824.320512 -2138.296237
-2748.000000 -826.301481 -2138.020991
-2748.000000 -828.282450 -2137.745745
-2748.000000 -830.263420 -2137.470498
-2748.000000 -832.244389 -2137.195252
-2748.000000 -834.225358 -2136.920006
-2748.000000 -836.206328 -2136.644760
-2748.000000 -838.187297 -2136.369513
-2748.000000 -840.168266 -2136.094267
-2748.000000 -842.149236 -2135.819021
-2748.000000 -844.130205 -2135.543775
-2748.000000 -846.111174 -2135.268529
-2748.000000 -848.092144 -2134.993282
-2748.000000 -850.073113 -2134.718036
-2748.000000 -852.054082 -2134.442790
-2748.000000 -854.035052 -2134.167544
-2748.000000 -856.016021 -2133.892297
-2748.000000 -857.996990 -2133.617051
-2748.000000 -859.977960 -2133.341805
-2748.000000 -861.958929 -2133.066559
-2748.000000 -863.939898 -2132.791312
-2748.000000 -865.920868 -2132.516066
-2748.000000 -867.901837 -2132.240820
-2748.000000 -869.882806 -2131.965574
-2748.000000 -871.863776 -2131.690327
-2748.000000 -873.844745 -2131.415081
-2748.000000 -875.825714 -2131.139835
-2748.000000 -877.806684 -2130.864589
-2748.000000 -879.787653 -2130.589342
-2748.000000 -881.768622 -2130.314096
-2748.000000 -883.749592 -2130.038850
-2748.000000 -885.730561 -2129.763604
-2748.000000 -887.711530 -2129.488357
-2748.000000 -889.692500 -2129.213111
-2748.000000 -891.673469 -2128.937865
-2748.000000 -893.654438 -2128.662619
-2748.000000 -895.635408 -2128.387372
-2748.000000 -897.616377 -2128.112126
-2748.000000 -899.597346 -2127.836880
-2748.000000 -901.578316 -2127.561634
-2748.000000 -903.559285 -2127.286387
-2748.000000 -905.540254 -2127.011141
-2748.000000 -907.521224 -2126.735895
-2748.000000 -909.502193 -2126.460649
-2748.000000 -911.483162 -2126.185402
-2748.000000 -913.464132 -2125.910156
-2748.000000 -915.445101 -2125.634910
-2748.000000 -917.426070 -2125.359664
-2748.000000 -919.407040 -2125.084417
-2748.000000 -921.388009 -2124.809171
-2748.000000 -923.368978 -2124.533925
-2748.000000 -925.349948 -2124.258679
-2748.000000 -927.330917 -2123.983432
-2748.000000 -929.311886 -2123.708186
-2748.000000 -931.292856 -2123.432940
-2748.000000 -933.273825 -2123.157694
-2748.000000 -935.254794 -2122.882447
-2748.000000 -937.235764 -2122.607201
-2748.000000 -939.216733 -2122.331955
-2748.000000 -941.197702 -2122.056709
-2748.000000 -943.178672 -2121.781462
-2748.000000 -945.159641 -2121.506216
-2748.000000 -947.140610 -2121.230970
-2748.000000 -949.121580 -2120.955724
-2748.000000 -951.102549 -2120.680477
-2748.000000 -953.083518 -2120.405231
-2748.000000 -956.000000 -2120.000000
-2748.000000 -956.000000 -2120.000000
-2747.758444 -957.393890 -2118.586238
-2747.516889 -958.787779 -2117.172476
-2747.275333 -960.181669 -2115.758715
-2747.033777 -961.575559 -2114.344953
-2746.792222 -962.969448 -2112.931191
-2746.550666 -964.363338 -2111.517429
-2746.309110 -965.757228 -2110.103667
-2746.067555 -967.151117 -2108.689905
-2745.825999 -968.545007 -2107.276144
-2745.584443 -969.938897 -2105.862382
-2745.342888 -971.332786 -2104.448620
-2745.101332 -972.726676 -2103.034858
-2744.859776 -974.120566 -2101.621096
-2744.618221 -975.514455 -2100.207335
-2744.376665 -976.908345 -2098.793573
-2744.135109 -978.302235 -2097.379811
-2743.893554 -979.696124 -2095.966049
-2743.651998 -981.090014 -2094.552287
-2743.410442 -982.483904 -2093.138526
-2743.168887 -983.877793 -2091.724764
-2742.927331 -985.271683 -2090.311002
-2742.685775 -986.665573 -2088.897240
-2742.444220 -988.059462 -2087.483478
-2742.202664 -989.453352 -2086.069716
-2741.961108 -990.847242 -2084.655955
-2741.719553 -992.241131 -2083.242193
-2741.477997 -993.635021 -2081.828431
-2741.236441 -995.028911 -2080.414669
-2740.994886 -996.422800 -2079.000907
-2740.753330 -997.816690 -2077.587146
-2740.511774 -999.210580 -2076.173384
-2740.270219 -1000.604469 -2074.759622
-2740.028663 -1001.998359 -2073.345860
-2739.787107 -1003.392248 -2071.932098
-2739.545552 -1004.786138 -2070.518336
-2739.303996 -1006.180028 -2069.104575
-2739.062440 -1007.573917 -2067.690813
-2738.820885 -1008.967807 -2066.277051
-2738.579329 -1010.361697 -2064.863289
-2738.337773 -1011.755586 -2063.449527
-2738.096218 -1013.149476 -2062.035766
-2737.854662 -1014.543366 -2060.622004
-2737.613106 -1015.937255 -2059.208242
-2737.371551 -1017.331145 -2057.794480
-2737.129995 -1018.725035 -2056.380718
-2736.888439 -1020.118924 -2054.966956
-2736.646884 -1021.512814 -2053.553195
-2736.405328 -1022.906704 -2052.139433
-2736.163772 -1024.300593 -2050.725671
-2735.922217 -1025.694483 -2049.311909
-2735.680661 -1027.088373 -2047.898147
-2735.439105 -1028.482262 -2046.484386
-2735.197550 -1029.876152 -2045.070624
-2734.955994 -1031.270042 -2043.656862
-2734.714438 -1032.663931 -2042.243100
-2734.472883 -1034.057821 -2040.829338
-2734.231327 -1035.451711 -2039.415577
-2733.989771 -1036.845600 -2038.001815
-2733.748216 -1038.239490 -2036.588053
-2733.506660 -1039.633380 -2035.174291
-2733.265104 -1041.027269 -2033.760529
-2733.023549 -1042.421159 -2032.346767
-2732.781993 -1043.815049 -2030.933006
-2732.540437 -1045.208938 -2029.519244
-2732.298882 -1046.602828 -2028.105482
-2732.057326 -1047.996718 -2026.691720
-2731.815770 -1049.390607 -2025.277958
-2731.574215 -1050.784497 -2023.864197
-2731.332659 -1052.178387 -2022.450435
-2731.091103 -1053.572276 -2021.036673
-2730.849548 -1054.966166 -2019.622911
-2730.607992 -1056.360056 -2018.209149
-2730.366436 -1057.753945 -2016.795387
-2730.124881 -1059.147835 -2015.381626
-2729.883325 -1060.541725 -2013.967864
-2729.641769 -1061.935614 -2012.554102
-2729.400214 -1063.329504 -2011.140340
-2729.158658 -1064.723394 -2009.726578
-2728.917102 -1066.117283 -2008.312817
-2728.675547 -1067.511173 -2006.899055
-2728.433991 -1068.905063 -2005.485293
-2728.192435 -1070.298952 -2004.071531
-2727.950880 -1071.692842 -2002.657769
-2727.709324 -1073.086732 -2001.244008
-2727.467768 -1074.480621 -1999.830246
-2727.226213 -1075.874511 -1998.416484
-2726.984657 -1077.268401 -1997.002722
-2726.743101 -1078.662290 -1995.588960
-2726.501546 -1080.056180 -1994.175198
-2726.259990 -1081.450070 -1992.761437
-2726.018434 -1082.843959 -1991.347675
-2725.776878 -1084.237849 -1989.933913
-2725.535323 -1085.631739 -1988.520151
-2725.293767 -1087.025628 -1987.106389
-2725.052211 -1088.419518 -1985.692628
-2724.810656 -1089.813407 -1984.278866
-2724.569100 -1091.207297 -1982.865104
-2724.327544 -1092.601187 -1981.451342
-2724.085989 -1093.995076 -1980.037580
-2723.844433 -1095.388966 -1978.623818
-2723.602877 -1096.782856 -1977.210057
-2723.361322 -1098.176745 -1975.796295
-2723.119766 -1099.570635 -1974.382533
-2722.878210 -1100.964525 -1972.968771
-2722.636655 -1102.358414 -1971.555009
-2722.395099 -1103.752304 -1970.141248
-2722.153543 -1105.146194 -1968.727486
-2721.911988 -1106.540083 -1967.313724
-2721.670432 -1107.933973 -1965.899962
-2721.428876 -1109.327863 -1964.486200
-2721.187321 -1110.721752 -1963.072438
-2720.945765 -1112.115642 -1961.658677
-2720.704209 -1113.509532 -1960.244915
-2720.462654 -1114.903421 -1958.831153
-2720.221098 -1116.297311 -1957.417391
-2719.979542 -1117.691201 -1956.003629
-2719.737987 -1119.085090 -1954.589868
-2719.496431 -1120.478980 -1953.176106
-2719.254875 -1121.872870 -1951.762344
-2719.013320 -1123.266759 -1950.348582
-2718.771764 -1124.660649 -1948.934820
-2718.530208 -1126.054539 -1947.521059
-2718.288653 -1127.448428 -1946.107297
-2718.047097 -1128.842318 -1944.693535
-2717.805541 -1130.236208 -1943.279773
-2717.563986 -1131.630097 -1941.866011
-2717.322430 -1133.023987 -1940.452249
-2717.080874 -1134.417877 -1939.038488
-2716.839319 -1135.811766 -1937.624726
-2716.597763 -1137.205656 -1936.210964
-2716.356207 -1138.599546 -1934.797202
-2716.114652 -1139.993435 -1933.383440
-2715.873096 -1141.387325 -1931.969679
-2715.631540 -1142.781215 -1930.555917
-2715.389985 -1144.175104 -1929.142155
-2715.148429 -1145.568994 -1927.728393
-2714.906873 -1146.962884 -1926.314631
-2714.665318 -1148.356773 -1924.900869
-2714.423762 -1149.750663 -1923.487108
-2714.182206 -1151.144553 -1922.073346
-2713.940651 -1152.538442 -1920.659584
-2713.699095 -1153.932332 -1919.245822
-2713.457539 -1155.326222 -1917.832060
-2713.215984 -1156.720111 -1916.418299
-2712.974428 -1158.114001 -1915.004537
-2712.732872 -1159.507891 -1913.590775
-2712.491317 -1160.901780 -1912.177013
-2712.249761 -1162.295670 -1910.763251
-2712.008205 -1163.689560 -1909.349489
-2711.766650 -1165.083449 -1907.935728
-2711.525094 -1166.477339 -1906.521966
-2711.283538 -1167.871229 -1905.108204
-2711.041983 -1169.265118 -1903.694442
-2710.800427 -1170.659008 -1902.280680
-2710.558871 -1172.052898 -1900.866919
-2710.317316 -1173.446787 -1899.453157
-2710.075760 -1174.840677 -1898.039395
-2709.834204 -1176.234567 -1896.625633
-2709.592649 -1177.628456 -1895.211871
-2709.351093 -1179.022346 -1893.798110
-2709.109537 -1180.416235 -1892.384348
-2708.867982 -1181.810125 -1890.970586
-2708.626426 -1183.204015 -1889.556824
-2708.384870 -1184.597904 -1888.143062
-2708.143315 -1185.991794 -1886.729300
-2707.901759 -1187.385684 -1885.315539
-2707.660203 -1188.779573 -1883.901777
-2707.418648 -1190.173463 -1882.488015
-2707.177092 -1191.567353 -1881.074253
-2706.935536 -1192.961242 -1879.660491
-2706.693981 -1194.355132 -1878.246730
-2706.452425 -1195.749022 -1876.832968
-2706.210869 -1197.142911 -1875.419206
-2705.969314 -1198.536801 -1874.005444
-2705.727758 -1199.930691 -1872.591682
-2705.486202 -1201.324580 -1871.177920
-2705.244647 -1202.718470 -1869.764159
-2705.003091 -1204.112360 -1868.350397
-2704.761535 -1205.506249 -1866.936635
-2704.519980 -1206.900139 -1865.522873
-2704.278424 -1208.294029 -1864.109111
-2704.036868 -1209.687918 -1862.695350
-2703.795313 -1211.081808 -1861.281588
-2703.553757 -1212.475698 -1859.867826
-2703.312201 -1213.869587 -1858.454064
-2703.070646 -1215.263477 -1857.040302
-2702.829090 -1216.657367 -1855.626541
-2702.587534 -1218.051256 -1854.212779
-2702.345979 -1219.445146 -1852.799017
-2702.104423 -1220.839036 -1851.385255
-2701.862867 -1222.232925 -1849.971493
-2701.621312 -1223.626815 -1848.557731
-2701.379756 -1225.020705 -1847.143970
-2701.138200 -1226.414594 -1845.730208
-2700.896645 -1227.808484 -1844.316446
-2700.655089 -1229.202374 -1842.902684
-2700.413533 -1230.596263 -1841.488922
-2700.171978 -1231.990153 -1840.075161
-2699.930422 -1233.384043 -1838.661399
-2699.688866 -1234.777932 -1837.247637
-2699.447311 -1236.171822 -1835.833875
-2699.205755 -1237.565712 -1834.420113
-2698.964199 -1238.959601 -1833.006351
-2698.722644 -1240.353491 -1831.592590
-2698.481088 -1241.747381 -1830.178828
-2698.239532 -1243.141270 -1828.765066
-2697.997977 -1244.535160 -1827.351304
-2697.756421 -1245.929050 -1825.937542
-2697.514865 -1247.322939 -1824.523781
-2697.273310 -1248.716829 -1823.110019
-2697.031754 -1250.110719 -1821.696257
-2696.790198 -1251.504608 -1820.282495
-2696.548643 -1252.898498 -1818.868733
-2696.307087 -1254.292388 -1817.454971
-2696.065531 -1255.686277 -1816.041210
-2695.823976 -1257.080167 -1814.627448
-2695.582420 -1258.474057 -1813.213686
-2695.340864 -1259.867946 -1811.799924
-2695.099309 -1261.261836 -1810.386162
-2694.857753 -1262.655726 -1808.972401
-2694.616197 -1264.049615 -1807.558639
-2694.374642 -1265.443505 -1806.144877
-2694.133086 -1266.837394 -1804.731115
-2693.891530 -1268.231284 -1803.317353
-2693.649975 -1269.625174 -1801.903592
-2693.408419 -1271.019063 -1800.489830
-2693.166863 -1272.412953 -1799.076068
-2692.925308 -1273.806843 -1797.662306
-2692.683752 -1275.200732 -1796.248544
-2692.442196 -1276.594622 -1794.834782
-2692.200641 -1277.988512 -1793.421021
-2691.959085 -1279.382401 -1792.007259
-2691.717529 -1280.776291 -1790.593497
-2691.475974 -1282.170181 -1789.179735
-2691.234418 -1283.564070 -1787.765973
-2690.992862 -1284.957960 -1786.352212
-2690.751307 -1286.351850 -1784.938450
-2690.509751 -1287.745739 -1783.524688
-2690.268195 -1289.139629 -1782.110926
-2690.026640 -1290.533519 -1780.697164
-2689.785084 -1291.927408 -1779.283402
-2689.543528 -1293.321298 -1777.869641
-2689.301973 -1294.715188 -1776.455879
-2689.060417 -1296.109077 -1775.042117
-2688.818861 -1297.502967 -1773.628355
-2688.577306 -1298.896857 -1772.214593
-2688.335750 -1300.290746 -1770.800832
-2688.094194 -1301.684636 -1769.387070
-2687.852639 -1303.078526 -1767.973308
-2687.611083 -1304.472415 -1766.559546
-2687.369527 -1305.866305 -1765.145784
-2687.127972 -1307.260195 -1763.732023
-2686.886416 -1308.654084 -1762.318261
-2686.644860 -1310.047974 -1760.904499
-2686.403305 -1311.441864 -1759.490737
-2686.161749 -1312.835753 -1758.076975
-2685.920193 -1314.229643 -1756.663213
-2685.678638 -1315.623533 -1755.249452
-2685.437082 -1317.017422 -1753.835690
-2685.195526 -1318.411312 -1752.421928
-2684.953971 -1319.805202 -1751.008166
-2684.712415 -1321.199091 -1749.594404
-2684.470859 -1322.592981 -1748.180643
-2684.229304 -1323.986871 -1746.766881
-2683.987748 -1325.380760 -1745.353119
-2683.746192 -1326.774650 -1743.939357
-2683.504637 -1328.168540 -1742.525595
-2683.263081 -1329.562429 -1741.111833
-2683.021525 -1330.956319 -1739.698072
-2682.779969 -1332.350209 -1738.284310
-2682.538414 -1333.744098 -1736.870548
-2682.296858 -1335.137988 -1735.456786
-2682.055302 -1336.531878 -1734.043024
-2681.813747 -1337.925767 -1732.629263
-2681.572191 -1339.319657 -1731.215501
-2681.330635 -1340.713547 -1729.801739
-2681.089080 -1342.107436 -1728.387977
-2680.847524 -1343.501326 -1726.974215
-2680.605968 -1344.895216 -1725.560453
-2680.364413 -1346.289105 -1724.146692
-2680.122857 -1347.682995 -1722.732930
-2679.881301 -1349.076885 -1721.319168
-2679.639746 -1350.470774 -1719.905406
-2679.398190 -1351.864664 -1718.491644
-2679.156634 -1353.258554 -1717.077883
-2678.915079 -1354.652443 -1715.664121
-2678.673523 -1356.046333 -1714.250359
-2678.431967 -1357.440222 -1712.836597
-2678.190412 -1358.834112 -1711.422835
-2677.948856 -1360.228002 -1710.009074
-2677.707300 -1361.621891 -1708.595312
-2677.465745 -1363.015781 -1707.181550
-2677.224189 -1364.409671 -1705.767788
-2676.982633 -1365.803560 -1704.354026
-2676.741078 -1367.197450 -1702.940264
-2676.499522 -1368.591340 -1701.526503
-2676.257966 -1369.985229 -1700.112741
-2676.016411 -1371.379119 -1698.698979
-2675.774855 -1372.773009 -1697.285217
-2675.533299 -1374.166898 -1695.871455
-2675.291744 -1375.560788 -1694.457694
-2675.050188 -1376.954678 -1693.043932
-2674.808632 -1378.348567 -1691.630170
-2674.567077 -1379.742457 -1690.216408
-2674.325521 -1381.136347 -1688.802646
-2674.083965 -1382.530236 -1687.388884
-2673.842410 -1383.924126 -1685.975123
-2673.600854 -1385.318016 -1684.561361
-2673.359298 -1386.711905 -1683.147599
-2673.117743 -1388.105795 -1681.733837
-2672.876187 -1389.499685 -1680.320075
-2672.634631 -1390.893574 -1678.906314
-2672.393076 -1392.287464 -1677.492552
-2672.151520 -1393.681354 -1676.078790
-2671.909964 -1395.075243 -1674.665028
-2671.668409 -1396.469133 -1673.251266
-2671.426853 -1397.863023 -1671.837505
-2671.185297 -1399.256912 -1670.423743
-2670.943742 -1400.650802 -1669.009981
-2670.702186 -1402.044692 -1667.596219
-2670.460630 -1403.438581 -1666.182457
-2670.219075 -1404.832471 -1664.768695
-2669.977519 -1406.226361 -1663.354934
-2669.735963 -1407.620250 -1661.941172
-2669.494408 -1409.014140 -1660.527410
-2669.252852 -1410.408030 -1659.113648
-2669.011296 -1411.801919 -1657.699886
-2668.769741 -1413.195809 -1656.286125
-2668.528185 -1414.589699 -1654.872363
-2668.286629 -1415.983588 -1653.458601
-2668.045074 -1417.377478 -1652.044839
-2667.803518 -1418.771368 -1650.631077
-2667.561962 -1420.165257 -1649.217315
-2667.320407 -1421.559147 -1647.803554
-2667.078851 -1422.953037 -1646.389792
-2666.837295 -1424.346926 -1644.976030
-2666.595740 -1425.740816 -1643.562268
-2666.354184 -1427.134706 -1642.148506
-2666.112628 -1428.528595 -1640.734745
-2665.871073 -1429.922485 -1639.320983
-2665.629517 -1431.316375 -1637.907221
-2665.387961 -1432.710264 -1636.493459
-2665.146406 -1434.104154 -1635.079697
-2664.904850 -1435.498044 -1633.665935
-2664.663294 -1436.891933 -1632.252174
-2664.421739 -1438.285823 -1630.838412
-2664.180183 -1439.679713 -1629.424650
-2663.938627 -1441.073602 -1628.010888
-2663.697072 -1442.467492 -1626.597126
-2663.455516 -1443.861381 -1625.183365
-2663.213960 -1445.255271 -1623.769603
-2662.972405 -1446.649161 -1622.355841
-2662.730849 -1448.043050 -1620.942079
-2662.489293 -1449.436940 -1619.528317
-2662.247738 -1450.830830 -1618.114556
-2662.006182 -1452.224719 -1616.700794
-2661.764626 -1453.618609 -1615.287032
-2661.523071 -1455.012499 -1613.873270
-2661.281515 -1456.406388 -1612.459508
-2661.039959 -1457.800278 -1611.045746
-2660.798404 -1459.194168 -1609.631985
-2660.556848 -1460.588057 -1608.218223
-2660.315292 -1461.981947 -1606.804461
-2660.073737 -1463.375837 -1605.390699
-2659.832181 -1464.769726 -1603.976937
-2659.590625 -1466.163616 -1602.563176
-2659.349070 -1467.557506 -1601.149414
-2659.107514 -1468.951395 -1599.735652
-2658.865958 -1470.345285 -1598.321890
-2658.624403 -1471.739175 -1596.908128
-2658.382847 -1473.133064 -1595.494366
-2658.141291 -1474.526954 -1594.080605
-2657.899736 -1475.920844 -1592.666843
-2657.658180 -1477.314733 -1591.253081
-2657.416624 -1478.708623 -1589.839319
-2657.175069 -1480.102513 -1588.425557
-2656.933513 -1481.496402 -1587.011796
-2656.691957 -1482.890292 -1585.598034
-2656.450402 -1484.284182 -1584.184272
-2656.208846 -1485.678071 -1582.770510
-2655.967290 -1487.071961 -1581.356748
-2655.725735 -1488.465851 -1579.942987
-2655.484179 -1489.859740 -1578.529225
-2655.242623 -1491.253630 -1577.115463
-2655.001068 -1492.647520 -1575.701701
-2654.759512 -1494.041409 -1574.287939
-2654.517956 -1495.435299 -1572.874177
-2654.276401 -1496.829189 -1571.460416
-2654.034845 -1498.223078 -1570.046654
-2653.793289 -1499.616968 -1568.632892
-2653.551734 -1501.010858 -1567.219130
-2653.310178 -1502.404747 -1565.805368
-2653.068622 -1503.798637 -1564.391607
-2652.827067 -1505.192527 -1562.977845
-2652.585511 -1506.586416 -1561.564083
-2652.343955 -1507.980306 -1560.150321
-2652.102400 -1509.374196 -1558.736559
-2651.860844 -1510.768085 -1557.322797
-2651.619288 -1512.161975 -1555.909036
-2651.377733 -1513.555865 -1554.495274
-2651.136177 -1514.949754 -1553.081512
-2650.894621 -1516.343644 -1551.667750
-2650.653066 -1517.737534 -1550.253988
-2650.411510 -1519.131423 -1548.840227
-2650.169954 -1520.525313 -1547.426465
-2649.928399 -1521.919203 -1546.012703
-2649.686843 -1523.313092 -1544.598941
-2649.445287 -1524.706982 -1543.185179
-2649.203732 -1526.100872 -1541.771417
-2648.962176 -1527.494761 -1540.357656
-2648.720620 -1528.888651 -1538.943894
-2648.479065 -1530.282541 -1537.530132
-2648.237509 -1531.676430 -1536.116370
-2647.995953 -1533.070320 -1534.702608
-2647.754398 -1534.464209 -1533.288847
-2647.512842 -1535.858099 -1531.875085
-2647.271286 -1537.251989 -1530.461323
-2647.029731 -1538.645878 -1529.047561
-2646.788175 -1540.039768 -1527.633799
-2646.546619 -1541.433658 -1526.220038
-2646.305064 -1542.827547 -1524.806276
-2646.063508 -1544.221437 -1523.392514
-2645.821952 -1545.615327 -1521.978752
-2645.580397 -1547.009216 -1520.564990
-2645.338841 -1548.403106 -1519.151228
-2645.097285 -1549.796996 -1517.737467
-2644.855730 -1551.190885 -1516.323705
-2644.614174 -1552.584775 -1514.909943
-2644.372618 -1553.978665 -1513.496181
-2644.131063 -1555.372554 -1512.082419
-2643.889507 -1556.766444 -1510.668658
-2643.647951 -1558.160334 -1509.254896
-2643.406396 -1559.554223 -1507.841134
-2643.164840 -1560.948113 -1506.427372
-2642.923284 -1562.342003 -1505.013610
-2642.681729 -1563.735892 -1503.599848
-2642.440173 -1565.129782 -1502.186087
-2642.198617 -1566.523672 -1500.772325
-2641.957062 -1567.917561 -1499.358563
-2641.715506 -1569.311451 -1497.944801
-2641.473950 -1570.705341 -1496.531039
-2641.232395 -1572.099230 -1495.117278
-2640.990839 -1573.493120 -1493.703516
-2640.749283 -1574.887010 -1492.289754
-2640.507728 -1576.280899 -1490.875992
-2640.266172 -1577.674789 -1489.462230
-2640.024616 -1579.068679 -1488.048468
-2639.783060 -1580.462568 -1486.634707
-2639.541505 -1581.856458 -1485.220945
-2639.299949 -1583.250348 -1483.807183
-2639.058393 -1584.644237 -1482.393421
-2638.816838 -1586.038127 -1480.979659
-2638.575282 -1587.432017 -1479.565898
-2638.333726 -1588.825906 -1478.152136
-2638.092171 -1590.219796 -1476.738374
-2637.850615 -1591.613686 -1475.324612
-2637.609059 -1593.007575 -1473.910850
-2637.367504 -1594.401465 -1472.497089
-2637.125948 -1595.795355 -1471.083327
-2636.884392 -1597.189244 -1469.669565
-2636.642837 -1598.583134 -1468.255803
-2636.401281 -1599.977024 -1466.842041
-2636.159725 -1601.370913 -1465.428279
-2635.918170 -1602.764803 -1464.014518
-2635.676614 -1604.158693 -1462.600756
-2635.435058 -1605.552582 -1461.186994
-2635.193503 -1606.946472 -1459.773232
-2634.951947 -1608.340362 -1458.359470
-2634.548807 -1610.666667 -1456.000000
-2634.548807 -1610.666667 -1456.000000
-2635.569698 -1609.769866 -1454.532508
-2636.590589 -1608.873066 -1453.065017
-2637.611479 -1607.976265 -1451.597525
-2638.632370 -1607.079465 -1450.130034
-2639.653260 -1606.182665 -1448.662542
-2640.674151 -1605.285864 -1447.195050
-2641.695041 -1604.389064 -1445.727559
-2642.715932 -1603.492263 -1444.260067
-2643.736822 -1602.595463 -1442.792576
-2644.757713 -1601.698663 -1441.325084
-2645.778603 -1600.801862 -1439.857593
-2646.799494 -1599.905062 -1438.390101
-2647.820384 -1599.008261 -1436.922609
-2648.841275 -1598.111461 -1435.455118
-2649.862165 -1597.214660 -1433.987626
-2651.244898 -1596.000000 -1432.000000
-2651.244898 -1596.000000 -1432.000000
-2651.936302 -1594.128701 -1431.857876
-2652.627706 -1592.257401 -1431.715752
-2653.319111 -1590.386102 -1431.573628
-2654.010515 -1588.514803 -1431.431504
-2654.701919 -1586.643504 -1431.289380
-2655.393323 -1584.772204 -1431.147256
-2656.084728 -1582.900905 -1431.005132
-2656.776132 -1581.029606 -1430.863008
-2657.467536 -1579.158307 -1430.720884
-2658.158940 -1577.287007 -1430.578760
-2658.850345 -1575.415708 -1430.436636
-2659.541749 -1573.544409 -1430.294512
-2660.233153 -1571.673109 -1430.152388
-2660.924557 -1569.801810 -1430.010264
-2661.615961 -1567.930511 -1429.868140
-2662.307366 -1566.059212 -1429.726016
-2662.998770 -1564.187912 -1429.583892
-2663.690174 -1562.316613 -1429.441768
-2664.381578 -1560.445314 -1429.299644
-2665.072983 -1558.574015 -1429.157520
-2665.764387 -1556.702715 -1429.015396
-2666.455791 -1554.831416 -1428.873272
-2667.147195 -1552.960117 -1428.731148
-2667.838600 -1551.088818 -1428.589024
-2668.530004 -1549.217518 -1428.446900
-2669.221408 -1547.346219 -1428.304776
-2669.912812 -1545.474920 -1428.162652
-2670.604216 -1543.603620 -1428.020528
-2671.295621 -1541.732321 -1427.878404
-2671.987025 -1539.861022 -1427.736280
-2672.678429 -1537.989723 -1427.594156
-2673.369833 -1536.118423 -1427.452032
-2674.061238 -1534.247124 -1427.309908
-2674.752642 -1532.375825 -1427.167784
-2675.444046 -1530.504526 -1427.025660
-2676.135450 -1528.633226 -1426.883536
-2676.826855 -1526.761927 -1426.741412
-2677.518259 -1524.890628 -1426.599288
-2678.209663 -1523.019328 -1426.457164
-2678.901067 -1521.148029 -1426.315040
-2679.592471 -1519.276730 -1426.172916
-2680.283876 -1517.405431 -1426.030792
-2680.975280 -1515.534131 -1425.888668
-2681.666684 -1513.662832 -1425.746544
-2682.358088 -1511.791533 -1425.604420
-2683.049493 -1509.920234 -1425.462296
-2683.740897 -1508.048934 -1425.320172
-2684.432301 -1506.177635 -1425.178048
-2685.123705 -1504.306336 -1425.035924
-2685.815110 -1502.435036 -1424.893800
-2686.506514 -1500.563737 -1424.751676
-2687.197918 -1498.692438 -1424.609552
-2687.889322 -1496.821139 -1424.467428
-2688.580726 -1494.949839 -1424.325304
-2689.272131 -1493.078540 -1424.183180
-2689.963535 -1491.207241 -1424.041056
-2690.654939 -1489.335942 -1423.898932
-2691.346343 -1487.464642 -1423.756808
-2692.037748 -1485.593343 -1423.614684
-2692.729152 -1483.722044 -1423.472560
-2693.420556 -1481.850745 -1423.330436
-2694.111960 -1479.979445 -1423.188312
-2694.803365 -1478.108146 -1423.046188
-2695.494769 -1476.236847 -1422.904064
-2696.186173 -1474.365547 -1422.761940
-2696.877577 -1472.494248 -1422.619816
-2697.568981 -1470.622949 -1422.477692
-2698.260386 -1468.751650 -1422.335568
-2698.951790 -1466.880350 -1422.193444
-2699.643194 -1465.009051 -1422.051320
-2700.334598 -1463.137752 -1421.909196
-2701.026003 -1461.266453 -1421.767072
-2701.717407 -1459.395153 -1421.624948
-2702.408811 -1457.523854 -1421.482824
-2703.100215 -1455.652555 -1421.340700
-2703.791620 -1453.781255 -1421.198576
